2.449180632829666138e-01 -7.295277714729309082e-02 -2.284274339675903320e+00
-4.556680202484130859e+00 7.402454018592834473e-01 2.679711151123046875e+01
1.448459029197692871e-01 -1.877021938562393188e-01 -1.410808444023132324e+00
2.007825523614883423e-01 8.735550567507743835e-03 -1.546250939369201660e+00
-5.583787441253662109e+00 5.140961647033691406e+00 7.810478210449218750e+01
3.842853009700775146e-02 -2.999260723590850830e-01 -6.792894005775451660e-01
2.200988493859767914e-02 -1.575334221124649048e-01 -6.251457929611206055e-01
3.716742992401123047e-02 -2.419069707393646240e-01 -3.792842626571655273e-01
3.556719049811363220e-02 -3.226197063922882080e-01 -6.346267461776733398e-01
4.516434669494628906e-02 -2.668410241603851318e-01 -9.848900437355041504e-01
1.056280508637428284e-01 -1.645061671733856201e-01 -1.464731574058532715e+00
1.162641681730747223e-02 -3.343652188777923584e-01 -7.354719042778015137e-01
1.162641681730747223e-02 -3.343652188777923584e-01 -7.354719042778015137e-01
3.300945390947163105e-04 -3.164526820182800293e-01 -6.920735239982604980e-01
5.888983607292175293e-02 1.702525652945041656e-02 -2.226618677377700806e-01
-4.228752478957176208e-02 4.105246625840663910e-03 -6.331607699394226074e-02
-3.161337971687316895e-02 -1.491732001304626465e-01 -4.340856373310089111e-01
-2.925430051982402802e-02 1.563949137926101685e-02 -3.644851446151733398e-01
7.519625127315521240e-02 1.975794136524200439e-01 3.808615803718566895e-01
1.446762122213840485e-02 -1.364165097475051880e-01 5.970671176910400391e-01
2.774581499397754669e-02 -2.393871359527111053e-02 1.175819188356399536e-01
2.128107659518718719e-02 -5.755829438567161560e-02 4.018867313861846924e-01
1.212522312998771667e-01 -3.949681818485260010e-01 1.389603495597839355e+00
1.420333236455917358e-01 1.210047006607055664e+00 -3.339458227157592773e+00
1.071418896317481995e-01 -2.492184191942214966e-01 6.064233779907226562e-01
-1.337730288505554199e-01 -1.748825311660766602e+00 3.847248315811157227e+00
1.466661244630813599e-01 2.010265737771987915e-02 7.181892395019531250e-01
1.449233889579772949e-01 2.759406808763742447e-03 6.914363503456115723e-01
1.648577004671096802e-01 7.102711498737335205e-02 7.784467339515686035e-01
-4.664042592048645020e-02 -1.748186796903610229e-01 -8.230270147323608398e-01
3.831443563103675842e-02 -4.758574999868869781e-03 1.802926361560821533e-01
-9.234022349119186401e-02 -3.139532506465911865e-01 -7.563704848289489746e-01
-6.367409974336624146e-02 -2.178183645009994507e-01 -4.882056415081024170e-01
1.594970524311065674e-01 5.286628380417823792e-02 6.871650218963623047e-01
-4.657323658466339111e-02 -2.464796900749206543e-01 3.525893688201904297e-01
6.609662771224975586e-01 1.358807086944580078e+00 2.680351734161376953e+00
5.708687901496887207e-01 1.069608569145202637e+00 2.074497699737548828e+00
-1.094201803207397461e-01 -2.706591486930847168e-01 -7.179945707321166992e-01
-1.141056418418884277e-01 -2.674005031585693359e-01 -6.982942223548889160e-01
4.709923639893531799e-02 -2.088488638401031494e-02 5.733290221542119980e-03
-1.304804086685180664e-01 -2.681276202201843262e-01 -6.577404141426086426e-01
-1.613327860832214355e-01 -4.177678823471069336e-01 -4.989511072635650635e-01
